-0.250839 0.249089 -1.41841
-0.251699 0.265245 -1.44441
-0.2509 0.260065 -1.43564
-0.251662 0.27559 -1.46298
-0.251821 0.271631 -1.45675
-0.250125 0.268645 -1.45065
-0.252053 0.28667 -1.4822
-0.250924 0.28373 -1.4774
-0.251751 0.279023 -1.46898
-0.251046 0.293954 -1.49433
-0.251114 0.289604 -1.48772
-0.251429 0.305373 -1.51644
-0.251443 0.300204 -1.50601
-0.250698 0.316323 -1.53582
-0.251617 0.312047 -1.5268
-0.251283 0.3083 -1.5194
-0.25386 0.32605 -1.5517
-0.251252 0.322606 -1.54457
-0.2511 0.318595 -1.53917
-0.251752 0.334831 -1.56636
-0.250871 0.330066 -1.55886
-0.252068 0.345806 -1.58466
-0.249989 0.340955 -1.5765
-0.25613 0.33816 -1.5705
-0.252227 0.357227 -1.60443
-0.252171 0.35206 -1.59633
-0.24782 0.34868 -1.5886
-0.251654 0.363161 -1.61395
-0.25005 0.35944 -1.60862
-0.251539 0.374983 -1.63382
-0.251104 0.369509 -1.6248
-0.250696 0.386594 -1.6533
-0.252072 0.382643 -1.64678
-0.250795 0.378925 -1.6392
-0.251719 0.394326 -1.6654
-0.250602 0.389612 -1.65734
-0.252748 0.406425 -1.68652
-0.250756 0.401482 -1.67816
-0.250625 0.41636 -1.70155
-0.2509 0.413258 -1.69606
-0.25085 0.409587 -1.69043
-0.251736 0.419186 -1.7062
-0.24868 0.43205 -1.7558
-0.25031 0.44579 -1.805
-0.24155 -0.684582 -1.19299
-0.241367 -0.684838 -1.18835
-0.243532 -0.673412 -1.21496
-0.241031 -0.675842 -1.20592
-0.241506 -0.68029 -1.19637
-0.240818 -0.681666 -1.18641
-0.238325 -0.66281 -1.2351
-0.241013 -0.665075 -1.22529
-0.241569 -0.669215 -1.21641
-0.241482 -0.67143 -1.20894
-0.240939 -0.654242 -1.24528
-0.241401 -0.658469 -1.23722
-0.240776 -0.661124 -1.22936
-0.24218 -0.64263 -1.27285
-0.241223 -0.643767 -1.26444
-0.240845 -0.647637 -1.25627
-0.241822 -0.650618 -1.24897
-0.23787 -0.63272 -1.2918
-0.241053 -0.634733 -1.28411
-0.241298 -0.637972 -1.27539
-0.241793 -0.641666 -1.26791
-0.241698 -0.624113 -1.3037
-0.241841 -0.626722 -1.29694
-0.24113 -0.629857 -1.28721
-0.240894 -0.613556 -1.32288
-0.24169 -0.61603 -1.31517
-0.2406 -0.619728 -1.3071
-0.241891 -0.604106 -1.3427
-0.241184 -0.605582 -1.33547
-0.241337 -0.610219 -1.32724
-0.24189 -0.61199 -1.319
-0.240985 -0.594774 -1.35539
-0.241277 -0.598952 -1.34597
-0.241165 -0.60139 -1.34
-0.23983 -0.58497 -1.3819
-0.241355 -0.58426 -1.3745
-0.241746 -0.588439 -1.36705
-0.241388 -0.59038 -1.35897
-0.241356 -0.574286 -1.39378
-0.241301 -0.577639 -1.38616
-0.241476 -0.580265 -1.3793
-0.240394 -0.563174 -1.4145
-0.241062 -0.566296 -1.40628
-0.242116 -0.570028 -1.39717
-0.243542 -0.552917 -1.4329
-0.241454 -0.556035 -1.42605
-0.241332 -0.559998 -1.41715
-0.241417 -0.544769 -1.44554
-0.240776 -0.54868 -1.43625
-0.24196 -0.549055 -1.4308
-0.24156 -0.534801 -1.46504
-0.241481 -0.538965 -1.45519
-0.240288 -0.541838 -1.44942
-0.242364 -0.523409 -1.48304
-0.240344 -0.527478 -1.4755
-0.24419 -0.531518 -1.4666
-0.240386 -0.51274 -1.50334
-0.242531 -0.515626 -1.49675
-0.24091 -0.520219 -1.48877
-0.240752 -0.503786 -1.52324
-0.241422 -0.506547 -1.51616
-0.240336 -0.510173 -1.50747
-0.241209 -0.495296 -1.53578
-0.242403 -0.499621 -1.52665
-0.24529 -0.50167 -1.521
-0.241391 -0.484641 -1.55374
-0.240611 -0.488811 -1.546
-0.240847 -0.47355 -1.575
-0.24167 -0.477688 -1.56678
-0.242752 -0.480979 -1.55894
-0.242454 -0.46355 -1.59407
-0.241541 -0.467057 -1.58646
-0.239513 -0.470476 -1.57744
-0.23961 -0.453474 -1.61266
-0.241564 -0.456116 -1.60515
-0.241594 -0.459956 -1.59596
-0.240775 -0.44301 -1.63235
-0.241283 -0.44584 -1.62547
-0.241041 -0.450431 -1.61814
-0.240916 -0.434856 -1.64486
-0.241492 -0.439431 -1.63428
-0.24329 -0.43992 -1.6309
-0.242273 -0.424202 -1.66521
-0.241158 -0.428212 -1.65593
-0.240846 -0.43142 -1.64854
-0.242033 -0.414373 -1.68498
-0.241287 -0.417166 -1.67579
-0.240968 -0.419815 -1.6684
-0.242062 -0.40301 -1.70403
-0.241262 -0.405386 -1.69558
-0.240613 -0.409621 -1.68821
-0.23911 -0.39325 -1.7215
-0.241885 -0.394889 -1.71687
-0.240568 -0.398936 -1.70705
-0.241019 -0.385459 -1.73435
-0.242007 -0.389738 -1.72548
-0.24084 -0.373498 -1.75286
-0.241281 -0.377987 -1.74577
-0.240742 -0.381218 -1.73485
-0.241546 -0.363434 -1.7736
-0.24166 -0.366498 -1.76565
-0.241435 -0.370466 -1.75793
-0.239643 -0.352913 -1.794
-0.24095 -0.356505 -1.7853
-0.241902 -0.361105 -1.77818
-0.24609 -0.34226 -1.8135
-0.241696 -0.345256 -1.8065
-0.242138 -0.349986 -1.79631
-0.240739 -0.333834 -1.82744
-0.240672 -0.338225 -1.81565
-0.239863 -0.341747 -1.8108
-0.241946 -0.324469 -1.84322
-0.24201 -0.328887 -1.83544
-0.24414 -0.33182 -1.8279
-0.240637 -0.313127 -1.86237
-0.241223 -0.317651 -1.85627
-0.239676 -0.321442 -1.8491
-0.242085 -0.30297 -1.88185
-0.242108 -0.306771 -1.87611
-0.240375 -0.310783 -1.86905
-0.2374 -0.3109 -1.8606
-0.240778 -0.295397 -1.89579
-0.241331 -0.299647 -1.88586
-0.240143 -0.285218 -1.91237
-0.240727 -0.289337 -1.9059
-0.24168 -0.29204 -1.89785
-0.241222 -0.0160444 -1.11371
-0.240728 -0.0146973 -1.1071
-0.24188 -0.0096251 -1.1113
-0.241377 -0.00757053 -1.10665
-0.239423 -0.00517385 -1.10052
-0.241429 0.000802899 -1.10358
-0.24115 0.00412393 -1.09848
-0.241022 0.0126431 -1.09589
-0.2425 0.0130222 -1.08987
-0.241621 0.0215346 -1.09327
-0.241315 0.0237362 -1.08929
-0.239724 0.0281694 -1.07422
-0.24272 0.030339 -1.06388
-0.241282 0.0335288 -1.05772
-0.23936 0.036939 -1.0503
-0.240949 0.0464224 -1.06243
-0.241247 0.0418832 -1.05508
-0.242376 0.0401558 -1.05076
-0.241281 0.0545049 -1.07677
-0.240668 0.0491888 -1.06665
-0.241096 0.0672436 -1.10168
-0.241168 0.0640273 -1.09588
-0.241996 0.0610272 -1.08708
-0.24416 0.058601 -1.08
-0.244665 0.077756 -1.12135
-0.241286 0.0751344 -1.11492
-0.241872 0.0708561 -1.1051
-0.240707 0.0693962 -1.09916
-0.242895 0.0865876 -1.13428
-0.239987 0.082257 -1.12655
-0.243309 0.0795649 -1.11966
-0.237705 0.09654 -1.15185
-0.24195 0.0939511 -1.14713
-0.240135 0.089634 -1.13725
-0.23872 0.10711 -1.1715
-0.241377 0.104279 -1.16649
-0.241929 0.0994352 -1.15696
-0.241652 0.11522 -1.18585
-0.241118 0.110312 -1.17595
-0.241604 0.125989 -1.20357
-0.241301 0.121971 -1.19671
-0.240707 0.118777 -1.18955
-0.240874 0.136751 -1.22281
-0.241109 0.132502 -1.21612
-0.241529 0.130286 -1.20983
-0.2412 0.14761 -1.24333
-0.241608 0.144395 -1.23594
-0.241118 0.139679 -1.22723
-0.241194 0.155782 -1.25666
-0.241591 0.150895 -1.24789
-0.241793 0.166055 -1.2745
-0.241195 0.161595 -1.26558
-0.24224 0.15882 -1.25936
-0.241392 0.176644 -1.29267
-0.241149 0.172401 -1.28554
-0.241894 0.16871 -1.27766
-0.241151 0.184331 -1.30493
-0.241334 0.179762 -1.29647
-0.241633 0.195571 -1.32418
-0.241291 0.190578 -1.31631
-0.24028 0.20622 -1.34306
-0.241302 0.202035 -1.33671
-0.24264 0.198727 -1.33053
-0.24127 0.217215 -1.36198
-0.241531 0.213134 -1.35542
-0.240957 0.209137 -1.348
-0.23827 0.22763 -1.3826
-0.242637 0.224995 -1.37645
-0.240026 0.220838 -1.36808
-0.241223 0.23548 -1.39501
-0.24137 0.230742 -1.38624
-0.23931 0.2466 -1.4135
-0.241567 0.242543 -1.40707
-0.243845 0.239205 -1.4004
-0.241754 0.254144 -1.42741
-0.242276 0.249356 -1.41922
-0.24118 0.265228 -1.44477
-0.24126 0.260397 -1.43632
-0.241975 0.276702 -1.46488
-0.241288 0.272353 -1.45674
-0.241758 0.26845 -1.44958
-0.23828 0.28651 -1.4813
-0.241674 0.283272 -1.47538
-0.240435 0.278895 -1.46875
-0.23812 0.2969 -1.5019
-0.241413 0.293886 -1.49548
-0.24125 0.289004 -1.48626
-0.240856 0.305029 -1.51534
-0.241642 0.300101 -1.50643
-0.240889 0.315121 -1.5332
-0.24279 0.310444 -1.52415
-0.23778 0.30863 -1.5211
-0.24111 0.32601 -1.55155
-0.241434 0.322177 -1.54483
-0.24366 0.318855 -1.54045
-0.24334 0.33685 -1.57207
-0.240822 0.334676 -1.56788
-0.240636 0.330076 -1.55893
-0.240812 0.34604 -1.58422
-0.24055 0.341728 -1.57869
-0.240417 0.357443 -1.60543
-0.242214 0.353149 -1.59745
-0.241368 0.34887 -1.58948
-0.2381 0.36775 -1.6214
-0.241361 0.36424 -1.61563
-0.240865 0.360103 -1.60967
-0.241606 0.37568 -1.63448
-0.242006 0.370477 -1.6258
-0.24133 0.3855 -1.65303
-0.242105 0.382457 -1.64722
-0.241313 0.378962 -1.63935
-0.24202 0.394421 -1.66621
-0.240902 0.389415 -1.65748
-0.2432 0.405653 -1.68445
-0.241052 0.401227 -1.67708
-0.24224 0.417415 -1.7026
-0.242929 0.412917 -1.69544
-0.242335 0.409385 -1.6896
-0.24133 0.42021 -1.7077
-0.23689 0.461285 -1.6141
-0.24369 0.48213 -1.6858
-0.231408 -0.684815 -1.19309
-0.231189 -0.684821 -1.18825
-0.230684 -0.673256 -1.21239
-0.231867 -0.676367 -1.20617
-0.230853 -0.680019 -1.1971
-0.22985 -0.681269 -1.18899
-0.230639 -0.663105 -1.23296
-0.231126 -0.665093 -1.22633
-0.231395 -0.669673 -1.21744
-0.232687 -0.671533 -1.21017
-0.231108 -0.654671 -1.24544
-0.231547 -0.658972 -1.23597
-0.231233 -0.644305 -1.26408
-0.231845 -0.647972 -1.25637
-0.230223 -0.65122 -1.24971
-0.231114 -0.634368 -1.28513
-0.231128 -0.638059 -1.27598
-0.231154 -0.640696 -1.26826
-0.23075 -0.623131 -1.30398
-0.231412 -0.626714 -1.29609
-0.231914 -0.631094 -1.2901
-0.232173 -0.61345 -1.32456
-0.231409 -0.616039 -1.31597
-0.230705 -0.619909 -1.30791
-0.230901 -0.606319 -1.33576
-0.231236 -0.610247 -1.32846
-0.23347 -0.593325 -1.3615
-0.231816 -0.594915 -1.35428
-0.231151 -0.599412 -1.34597
-0.230568 -0.601795 -1.33908
-0.230809 -0.584459 -1.37511
-0.231407 -0.588403 -1.36598
-0.230379 -0.591089 -1.35824
-0.232867 -0.574481 -1.39344
-0.231451 -0.577376 -1.38649
-0.230874 -0.580579 -1.37867
-0.23125 -0.563618 -1.41244
-0.230046 -0.565739 -1.40587
-0.231806 -0.56972 -1.39814
-0.23385 -0.55231 -1.4347
-0.231944 -0.555917 -1.42582
-0.231138 -0.560287 -1.41519
-0.22766 -0.54388 -1.4515
-0.230829 -0.545503 -1.44475
-0.23149 -0.548706 -1.43717
-0.23094 -0.551365 -1.43
-0.232428 -0.534793 -1.46486
-0.231649 -0.538011 -1.45672
-0.231093 -0.540706 -1.4495
-0.231191 -0.523167 -1.48307
-0.230555 -0.527112 -1.47647
-0.229987 -0.53099 -1.46865
-0.232028 -0.513989 -1.50252
-0.23194 -0.517672 -1.49543
-0.232106 -0.521006 -1.48761
-0.231332 -0.503686 -1.52236
-0.231482 -0.507184 -1.51471
-0.229653 -0.510436 -1.50747
-0.232544 -0.496015 -1.53542
-0.231181 -0.499849 -1.52608
-0.230629 -0.483768 -1.55464
-0.230657 -0.488741 -1.5473
-0.230335 -0.491885 -1.53697
-0.231149 -0.474274 -1.5748
-0.23182 -0.478007 -1.56542
-0.231872 -0.48156 -1.558
-0.231065 -0.46326 -1.59265
-0.231076 -0.466769 -1.5865
-0.231611 -0.470931 -1.57681
-0.23377 -0.45374 -1.6113
-0.231372 -0.456205 -1.60619
-0.231463 -0.45986 -1.5971
-0.22812 -0.46154 -1.58975
-0.22996 -0.443537 -1.63323
-0.230997 -0.444983 -1.62522
-0.231226 -0.449029 -1.61674
-0.232345 -0.4519 -1.6109
-0.230753 -0.434229 -1.64535
-0.232003 -0.438707 -1.63615
-0.227 -0.44171 -1.6309
-0.230231 -0.423484 -1.66406
-0.231414 -0.428034 -1.65699
-0.232435 -0.43025 -1.65005
-0.231256 -0.41366 -1.68354
-0.231551 -0.416547 -1.67736
-0.231057 -0.419846 -1.6679
-0.232725 -0.4036 -1.70212
-0.230983 -0.406064 -1.69584
-0.231295 -0.410191 -1.68831
-0.230583 -0.393337 -1.7219
-0.23153 -0.395043 -1.7156
-0.231122 -0.399424 -1.70644
-0.231684 -0.385457 -1.73381
-0.23081 -0.38969 -1.72557
-0.234695 -0.391145 -1.7203
-0.231341 -0.373863 -1.75369
-0.230912 -0.378042 -1.74738
-0.231677 -0.38148 -1.73817
-0.231934 -0.363418 -1.7744
-0.230959 -0.366163 -1.76556
-0.231674 -0.370383 -1.75861
-0.23368 -0.352813 -1.7935
-0.231425 -0.355598 -1.78554
-0.232034 -0.360434 -1.77833
-0.2307 -0.344646 -1.80418
-0.23147 -0.349493 -1.79749
-0.232233 -0.334412 -1.82501
-0.231183 -0.339128 -1.81496
-0.2309 -0.34175 -1.8108
-0.231046 -0.324163 -1.84389
-0.231745 -0.328044 -1.83643
-0.230625 -0.331925 -1.8285
-0.231413 -0.31308 -1.8621
-0.231551 -0.31673 -1.85594
-0.229614 -0.320471 -1.84856
-0.23281 -0.303423 -1.88205
-0.231149 -0.305862 -1.8755
-0.23078 -0.310388 -1.8677
-0.23436 -0.31094 -1.8609
-0.232595 -0.292605 -1.90155
-0.230143 -0.295915 -1.89604
-0.231813 -0.300518 -1.88761
-0.23263 -0.284252 -1.9137
-0.231337 -0.288447 -1.90623
-0.232665 -0.0153455 -1.11388
-0.229889 -0.0149303 -1.1083
-0.22732 -0.017278 -1.093
-0.231196 -0.0094911 -1.11136
-0.231063 -0.00751572 -1.10601
-0.23241 -0.00321478 -1.0993
-0.231123 0.000677248 -1.10383
-0.231385 0.00442135 -1.0985
-0.229238 0.00878048 -1.10218
-0.231272 0.0122492 -1.09568
-0.2287 0.015494 -1.0909
-0.231512 0.0218029 -1.09406
-0.231303 0.0236581 -1.08843
-0.23055 0.0284722 -1.0858
-0.23455 0.028285 -1.07865
-0.230382 0.0320085 -1.06222
-0.231627 0.033072 -1.05688
-0.2281 0.035913 -1.0511
-0.231057 0.0468892 -1.06352
-0.231143 0.0420436 -1.05599
-0.233707 0.0568865 -1.08323
-0.231173 0.0542325 -1.075
-0.230915 0.0497951 -1.0676
-0.23259 0.0672698 -1.10212
-0.231322 0.0652121 -1.09644
-0.2309 0.0603676 -1.0851
-0.231207 0.07615 -1.11534
-0.231809 0.0715631 -1.10648
-0.230283 0.0690915 -1.1002
-0.231604 0.085986 -1.13415
-0.23232 0.0818792 -1.12613
-0.229203 0.0794924 -1.11866
-0.231622 0.0972548 -1.15343
-0.231353 0.0938617 -1.14678
-0.231031 0.0892788 -1.13841
-0.22775 0.10715 -1.172
-0.23146 0.10424 -1.166
-0.231182 0.099557 -1.15678
-0.231557 0.115732 -1.18545
-0.23144 0.110986 -1.17729
-0.228465 0.108075 -1.17025
-0.232076 0.126138 -1.20447
-0.230816 0.12134 -1.19572
-0.232863 0.118927 -1.18915
-0.231703 0.136156 -1.22234
-0.231825 0.132524 -1.21511
-0.23038 0.129756 -1.20951
-0.228205 0.147405 -1.2416
-0.231327 0.144585 -1.23608
-0.231343 0.139537 -1.22801
-0.22969 0.15758 -1.2615
-0.230962 0.154853 -1.25569
-0.231735 0.150469 -1.24737
-0.232112 0.166135 -1.27488
-0.231231 0.161378 -1.26652
-0.232027 0.177165 -1.29368
-0.231098 0.172717 -1.28653
-0.231947 0.16894 -1.2794
-0.230516 0.184931 -1.30663
-0.231925 0.180131 -1.29702
-0.231427 0.195997 -1.32574
-0.23122 0.190816 -1.31688
-0.232204 0.206534 -1.34278
-0.230915 0.202781 -1.33684
-0.231914 0.198614 -1.32976
-0.231978 0.21672 -1.36261
-0.230838 0.213238 -1.35705
-0.231291 0.208949 -1.34761
-0.23373 0.227497 -1.38173
-0.229839 0.225326 -1.37671
-0.231298 0.220855 -1.36757
-0.231752 0.235611 -1.39511
-0.231764 0.230874 -1.38666
-0.229097 0.228483 -1.3797
-0.233438 0.246373 -1.4131
-0.231324 0.242248 -1.40618
-0.229027 0.23897 -1.399
-0.231445 0.253211 -1.42513
-0.230244 0.249161 -1.41883
-0.230284 0.265111 -1.44507
-0.232017 0.260008 -1.43608
-0.233307 0.27609 -1.46365
-0.231233 0.271684 -1.4563
-0.230548 0.286705 -1.48235
-0.231842 0.283521 -1.47632
-0.23074 0.279034 -1.4689
-0.23569 0.29695 -1.5021
-0.230914 0.294919 -1.4964
-0.230532 0.2901 -1.48781
-0.231009 0.305123 -1.51577
-0.231273 0.300038 -1.50653
-0.229563 0.315428 -1.53398
-0.233082 0.311448 -1.5263
-0.229025 0.3085 -1.5204
-0.232335 0.326288 -1.55282
-0.231843 0.32169 -1.54381
-0.229717 0.31869 -1.53963
-0.23222 0.335515 -1.56833
-0.230314 0.330766 -1.55927
-0.232096 0.345142 -1.58314
-0.23104 0.340068 -1.57453
-0.23223 0.356845 -1.60275
-0.232845 0.35276 -1.5957
-0.23206 0.348503 -1.5878
-0.233487 0.363918 -1.61547
-0.232635 0.359445 -1.60675
-0.234299 0.370871 -1.62524
-0.235333 0.38419 -1.64737
-0.2343 0.37837 -1.6368
-0.23617 0.38956 -1.6557
-0.23082 0.44341 -1.5498
-0.220809 -0.685188 -1.19304
-0.22172 -0.684755 -1.18818
-0.221669 -0.673963 -1.21289
-0.221386 -0.676063 -1.20589
-0.221483 -0.68014 -1.19715
-0.22416 -0.681591 -1.1875
-0.221438 -0.662936 -1.23506
-0.221229 -0.665479 -1.22472
-0.221554 -0.669764 -1.21746
-0.21957 -0.671256 -1.20896
-0.22609 -0.65353 -1.2523
-0.220892 -0.655825 -1.24522
-0.221951 -0.659558 -1.237
-0.21908 -0.66126 -1.22914
-0.221209 -0.644158 -1.26479
-0.221338 -0.648567 -1.25628
-0.221289 -0.650624 -1.24812
-0.221818 -0.634463 -1.28383
-0.222499 -0.638343 -1.27515
-0.219937 -0.64075 -1.26917
-0.221111 -0.623604 -1.3038
-0.221148 -0.627078 -1.29583
-0.220934 -0.630491 -1.28866
-0.217505 -0.632115 -1.281
-0.22389 -0.61291 -1.32455
-0.221432 -0.615849 -1.31703
-0.221872 -0.620455 -1.30838
-0.221625 -0.602888 -1.34333
-0.221443 -0.605549 -1.33475
-0.220407 -0.610415 -1.3256
-0.21921 -0.59238 -1.3612
-0.22104 -0.594677 -1.35388
-0.221628 -0.598222 -1.34709
-0.221375 -0.584241 -1.37397
-0.220803 -0.588112 -1.36551
-0.221467 -0.591355 -1.35784
-0.220995 -0.573955 -1.39404
-0.222112 -0.577198 -1.38611
-0.220757 -0.581201 -1.37785
-0.220563 -0.56316 -1.41347
-0.220872 -0.566425 -1.40619
-0.220773 -0.57057 -1.39782
-0.22627 -0.55301 -1.432
-0.221939 -0.556164 -1.42474
-0.221427 -0.559762 -1.41551
-0.223807 -0.559687 -1.41023
-0.22265 -0.54229 -1.4515
-0.220696 -0.545457 -1.44568
-0.221431 -0.54944 -1.43602
-0.221515 -0.550695 -1.42977
-0.222353 -0.534841 -1.46556
-0.221386 -0.53847 -1.45586
-0.221984 -0.541016 -1.44986
-0.220793 -0.522928 -1.48645
-0.220476 -0.526939 -1.47598
-0.222391 -0.53141 -1.4694
-0.218625 -0.51295 -1.50495
-0.221916 -0.516907 -1.49654
-0.221083 -0.521287 -1.48759
-0.22425 -0.52181 -1.478
-0.221776 -0.503768 -1.52172
-0.220318 -0.506501 -1.51514
-0.221354 -0.510308 -1.50624
-0.221923 -0.495671 -1.53494
-0.221187 -0.500445 -1.52602
-0.220636 -0.48482 -1.55468
-0.22125 -0.489332 -1.54553
-0.222846 -0.491762 -1.53886
-0.222475 -0.47417 -1.57369
-0.221171 -0.477591 -1.56718
-0.221351 -0.480649 -1.5589
-0.220337 -0.463337 -1.59423
-0.221293 -0.467424 -1.58586
-0.221833 -0.471177 -1.57667
-0.219308 -0.454372 -1.61218
-0.221774 -0.456441 -1.60713
-0.220607 -0.460155 -1.59775
-0.22424 -0.46191 -1.591
-0.21905 -0.44241 -1.6334
-0.221195 -0.445373 -1.62516
-0.22257 -0.449983 -1.61612
-0.221759 -0.434808 -1.64465
-0.220074 -0.439219 -1.63654
-0.22422 -0.44151 -1.6301
-0.220988 -0.423974 -1.66367
-0.222195 -0.428763 -1.65704
-0.220554 -0.431504 -1.64886
-0.220373 -0.413896 -1.68379
-0.22191 -0.416366 -1.6777
-0.221062 -0.419372 -1.66915
-0.21999 -0.40324 -1.70503
-0.222108 -0.405883 -1.69711
-0.221594 -0.410388 -1.68831
-0.21636 -0.39343 -1.7223
-0.221641 -0.394791 -1.71647
-0.221125 -0.399906 -1.70838
-0.221066 -0.384709 -1.73461
-0.220425 -0.389119 -1.72689
-0.223285 -0.391125 -1.72025
-0.220883 -0.374514 -1.75493
-0.221 -0.378519 -1.74677
-0.223038 -0.381278 -1.7381
-0.221052 -0.363486 -1.77386
-0.220898 -0.367355 -1.76695
-0.221405 -0.370985 -1.75715
-0.221798 -0.355161 -1.78578
-0.220845 -0.359846 -1.77725
-0.22504 -0.3438 -1.8119
-0.221341 -0.345576 -1.80545
-0.221028 -0.350252 -1.79647
-0.220275 -0.33442 -1.82553
-0.221739 -0.337944 -1.81695
-0.221853 -0.341513 -1.80953
-0.221069 -0.325197 -1.84373
-0.220081 -0.328829 -1.83445
-0.222635 -0.3314 -1.8292
-0.22529 -0.3131 -1.8622
-0.221871 -0.315987 -1.85665
-0.220913 -0.320714 -1.84847
-0.22346 -0.30288 -1.8813
-0.220187 -0.306281 -1.87535
-0.222563 -0.310574 -1.86736
-0.21853 -0.29452 -1.9013
-0.222009 -0.294645 -1.89735
-0.220444 -0.299511 -1.88743
-0.222436 -0.284798 -1.914
-0.221927 -0.288438 -1.90612
-0.22468 -0.29027 -1.9005
-0.220077 -0.0147137 -1.11258
-0.222511 -0.0145363 -1.10813
-0.22426 -0.0173157 -1.0955
-0.221755 -0.00889187 -1.11227
-0.221359 -0.00719144 -1.10702
-0.220801 0.0019717 -1.10401
-0.221736 0.00392038 -1.09862
-0.222925 0.0094154 -1.10155
-0.221463 0.0127676 -1.09769
-0.22194 0.016619 -1.0908
-0.221902 0.0213041 -1.09463
-0.220154 0.0260143 -1.08833
-0.221985 0.0284368 -1.08443
-0.219222 0.0317605 -1.06353
-0.221207 0.0331108 -1.05615
-0.22551 0.035874 -1.0499
-0.221263 0.0460533 -1.06234
-0.221569 0.0416626 -1.05677
-0.217783 0.0562537 -1.08323
-0.220957 0.0555808 -1.07623
-0.221725 0.0507528 -1.06864
-0.220057 0.065153 -1.09612
-0.221948 0.0609748 -1.0863
-0.22064 0.058566 -1.0794
-0.220618 0.0754326 -1.11423
-0.221343 0.0711864 -1.10508
-0.222585 0.0696602 -1.10002
-0.220338 0.0860351 -1.13263
-0.221593 0.0825033 -1.12729
-0.22568 0.0792333 -1.12083
-0.22262 0.0972602 -1.15348
-0.22106 0.0932919 -1.14635
-0.222091 0.0890754 -1.13649
-0.22077 0.106795 -1.17235
-0.220792 0.103714 -1.16564
-0.222266 0.0993541 -1.15641
-0.221341 0.115268 -1.18518
-0.220913 0.110233 -1.17667
-0.2257 0.10806 -1.1701
-0.219793 0.125985 -1.20539
-0.222028 0.121991 -1.19652
-0.221928 0.118503 -1.18878
-0.220357 0.136347 -1.22253
-0.221782 0.132556 -1.21572
-0.220463 0.129473 -1.20893
-0.22041 0.14745 -1.242
-0.220794 0.143971 -1.23602
-0.221186 0.139248 -1.22629
-0.220649 0.155332 -1.256
-0.221731 0.151062 -1.24794
-0.221582 0.166198 -1.27362
-0.220787 0.161773 -1.26609
-0.222565 0.158675 -1.26015
-0.22022 0.177198 -1.29222
-0.221374 0.173081 -1.28533
-0.221646 0.16876 -1.27802
-0.220879 0.184249 -1.30494
-0.221815 0.179871 -1.29726
-0.22521 0.17833 -1.2908
-0.220856 0.195301 -1.32435
-0.221429 0.189962 -1.31621
-0.22144 0.207107 -1.34383
-0.221636 0.202418 -1.33597
-0.221862 0.198663 -1.3301
-0.22162 0.217235 -1.3621
-0.221009 0.213052 -1.35504
-0.22111 0.208919 -1.34741
-0.22153 0.22751 -1.3818
-0.221771 0.224413 -1.37577
-0.221042 0.220212 -1.36677
-0.221476 0.235338 -1.39497
-0.220433 0.230806 -1.3871
-0.22248 0.22854 -1.38
-0.220904 0.245682 -1.41248
-0.221619 0.241886 -1.40665
-0.22467 0.23921 -1.4004
-0.221229 0.254267 -1.42728
-0.220433 0.249362 -1.4176
-0.221862 0.2654 -1.44663
-0.221145 0.260002 -1.4373
-0.219619 0.275618 -1.46322
-0.222924 0.271522 -1.45616
-0.21947 0.26849 -1.4498
-0.21901 0.28648 -1.4812
-0.221757 0.284251 -1.47822
-0.222026 0.27922 -1.4682
-0.222126 0.294718 -1.49575
-0.21998 0.290218 -1.48703
-0.21653 0.28781 -1.4801
-0.22234 0.305605 -1.51547
-0.221976 0.299961 -1.50443
-0.22407 0.31579 -1.5332
-0.22345 0.31291 -1.5267
-0.221722 0.310044 -1.51884
-0.225197 0.322943 -1.54463
-0.22323 0.321335 -1.53675
-0.22105 0.321874 -1.52588
-0.22054 0.32259 -1.5198
-0.21924 0.32688 -1.5036
-0.218743 0.324697 -1.4983
-0.22612 0.32823 -1.554
-0.218585 0.32903 -1.49545
-0.21749 0.32859 -1.4828
-0.21696 0.4069 -1.4289
-0.2164 0.4001 -1.3975
-0.210613 -0.685036 -1.19328
-0.211343 -0.685085 -1.18871
-0.212218 -0.673388 -1.21323
-0.211875 -0.676273 -1.2047
-0.211647 -0.679854 -1.19707
-0.211251 -0.681317 -1.18847
-0.213767 -0.662823 -1.23352
-0.211166 -0.666104 -1.2257
-0.211413 -0.669433 -1.21594
-0.210491 -0.671289 -1.20953
-0.21149 -0.653825 -1.2514
-0.211465 -0.655661 -1.24553
-0.211018 -0.658831 -1.23526
-0.20964 -0.661183 -1.22893
-0.20723 -0.64329 -1.2742
-0.211017 -0.644097 -1.26559
-0.211519 -0.64874 -1.25701
-0.210562 -0.651275 -1.24818
-0.213563 -0.633457 -1.29227
-0.210788 -0.633811 -1.28497
-0.211594 -0.63726 -1.27612
-0.21256 -0.640154 -1.26977
-0.212012 -0.625168 -1.30354
-0.211623 -0.628734 -1.29477
-0.209705 -0.631462 -1.28765
-0.211878 -0.613403 -1.32387
-0.211231 -0.616058 -1.31609
-0.211315 -0.620361 -1.30861
-0.210243 -0.60367 -1.34207
-0.21151 -0.605912 -1.33595
-0.211303 -0.60924 -1.32596
-0.209965 -0.592605 -1.36365
-0.211347 -0.594507 -1.35478
-0.210712 -0.598952 -1.34742
-0.213877 -0.60088 -1.34003
-0.212605 -0.584215 -1.37502
-0.211047 -0.58779 -1.3664
-0.21034 -0.590887 -1.35907
-0.211217 -0.574259 -1.39323
-0.21165 -0.577991 -1.38594
-0.209617 -0.580826 -1.37736
-0.211155 -0.562962 -1.41468
-0.211421 -0.56569 -1.40585
-0.210079 -0.570398 -1.39776
-0.209302 -0.55492 -1.43365
-0.21175 -0.555458 -1.42621
-0.211751 -0.559572 -1.41688
-0.21252 -0.562035 -1.4093
-0.210363 -0.54266 -1.45247
-0.211107 -0.544735 -1.44517
-0.210639 -0.549136 -1.43737
-0.212386 -0.550913 -1.42983
-0.212285 -0.534414 -1.46442
-0.211811 -0.538347 -1.45601
-0.21507 -0.54015 -1.4503
-0.211612 -0.524294 -1.48538
-0.210431 -0.528726 -1.4758
-0.211595 -0.53186 -1.46718
-0.208937 -0.513822 -1.50257
-0.212158 -0.517161 -1.49558
-0.20934 -0.521035 -1.48838
-0.21454 -0.50328 -1.5213
-0.210467 -0.506618 -1.5157
-0.211989 -0.510907 -1.5066
-0.212065 -0.492715 -1.54335
-0.21214 -0.494931 -1.53641
-0.210332 -0.499311 -1.52736
-0.211215 -0.501788 -1.5202
-0.209325 -0.484145 -1.56205
-0.210709 -0.485255 -1.55754
-0.212359 -0.489062 -1.54568
-0.20786 -0.49218 -1.5391
-0.209888 -0.473418 -1.57314
-0.210972 -0.477818 -1.56786
-0.2109 -0.481843 -1.56033
-0.210861 -0.463501 -1.5948
-0.212209 -0.466549 -1.58488
-0.21113 -0.470655 -1.57787
-0.21489 -0.47111 -1.5703
-0.211028 -0.452635 -1.61352
-0.210898 -0.455804 -1.60671
-0.211421 -0.459922 -1.59836
-0.209505 -0.442335 -1.63315
-0.21178 -0.445248 -1.62611
-0.211226 -0.449662 -1.61717
-0.211544 -0.433829 -1.64496
-0.211681 -0.438756 -1.63601
-0.211144 -0.424999 -1.66495
-0.211369 -0.429506 -1.65572
-0.207685 -0.43173 -1.64905
-0.211669 -0.413398 -1.68626
-0.211298 -0.417385 -1.67556
-0.212174 -0.420784 -1.66833
-0.208195 -0.40373 -1.70455
-0.211596 -0.406141 -1.69675
-0.212195 -0.4104 -1.6895
-0.211437 -0.395042 -1.71677
-0.211144 -0.399888 -1.70727
-0.2104 -0.38325 -1.742
-0.211374 -0.384422 -1.73486
-0.210849 -0.388846 -1.72622
-0.21338 -0.39129 -1.721
-0.211093 -0.374852 -1.75404
-0.211583 -0.379267 -1.74558
-0.210366 -0.363783 -1.77344
-0.210983 -0.36801 -1.76545
-0.21153 -0.37133 -1.75817
-0.211925 -0.353275 -1.7927
-0.211753 -0.355336 -1.78522
-0.210712 -0.359624 -1.7781
-0.211452 -0.345632 -1.80644
-0.211256 -0.349883 -1.79656
-0.210802 -0.335241 -1.82405
-0.210513 -0.339231 -1.81384
-0.212227 -0.341232 -1.81052
-0.211325 -0.324734 -1.84329
-0.211117 -0.328913 -1.83664
-0.211672 -0.33121 -1.82888
-0.206905 -0.313995 -1.86185
-0.211642 -0.316151 -1.85583
-0.212172 -0.320975 -1.84757
-0.20958 -0.302955 -1.88175
-0.211112 -0.305357 -1.8764
-0.210873 -0.310151 -1.86709
-0.213117 -0.293218 -1.90235
-0.210833 -0.29616 -1.89656
-0.212114 -0.2996 -1.887
-0.211663 -0.285127 -1.91483
-0.211225 -0.288844 -1.90514
-0.21153 -0.037492 -1.912
-0.212025 -0.014551 -1.11292
-0.211492 -0.0148048 -1.10959
-0.211883 -0.00859445 -1.11242
-0.211267 -0.00728668 -1.10721
-0.211089 0.00115296 -1.10489
-0.211201 0.00493958 -1.09955
-0.209473 0.0104928 -1.1016
-0.211792 0.0125004 -1.09585
-0.20922 0.015479 -1.0898
-0.210993 0.0223542 -1.09304
-0.212004 0.024012 -1.08975
-0.20857 0.028613 -1.0912
-0.21192 0.0284925 -1.08657
-0.20797 0.029178 -1.0721
-0.210592 0.0308999 -1.06484
-0.211653 0.0339205 -1.05734
-0.21346 0.047033 -1.0627
-0.211689 0.0422459 -1.05766
-0.210721 0.0564493 -1.08387
-0.211954 0.0544264 -1.07739
-0.211318 0.0499401 -1.06586
-0.213752 0.067025 -1.10178
-0.210864 0.0640058 -1.09538
-0.210977 0.0604266 -1.08829
-0.21244 0.058622 -1.0804
-0.214173 0.0766037 -1.12183
-0.211032 0.075995 -1.11668
-0.211163 0.0712095 -1.10666
-0.213517 0.0853599 -1.13344
-0.210277 0.0826915 -1.12674
-0.213533 0.079446 -1.1187
-0.210953 0.096838 -1.15364
-0.211295 0.0934886 -1.14539
-0.211352 0.089315 -1.13862
-0.208985 0.106853 -1.17192
-0.211699 0.103571 -1.16648
-0.211259 0.0989372 -1.15463
-0.211274 0.115217 -1.1851
-0.210816 0.110575 -1.17679
-0.21369 0.10796 -1.169
-0.211721 0.125928 -1.20486
-0.212152 0.121331 -1.19564
-0.208162 0.119213 -1.189
-0.211514 0.136478 -1.22368
-0.211034 0.132052 -1.21504
-0.211855 0.12883 -1.2096
-0.21165 0.1475 -1.2424
-0.210726 0.144632 -1.23602
-0.211831 0.139741 -1.22759
-0.211112 0.155015 -1.25562
-0.211486 0.150183 -1.24695
-0.211561 0.166052 -1.27533
-0.21091 0.161194 -1.26642
-0.210335 0.177003 -1.2925
-0.211403 0.172904 -1.28655
-0.21159 0.168844 -1.27866
-0.207805 0.187755 -1.3115
-0.2111 0.184823 -1.30648
-0.211963 0.180135 -1.29789
-0.212015 0.194756 -1.32361
-0.211277 0.190464 -1.31679
-0.211061 0.205497 -1.34236
-0.210971 0.201551 -1.33544
-0.213367 0.199225 -1.3299
-0.20913 0.216978 -1.36258
-0.212436 0.213833 -1.35679
-0.210693 0.20934 -1.34853
-0.20931 0.22745 -1.3815
-0.211538 0.225096 -1.37632
-0.211116 0.220083 -1.36597
-0.212813 0.235247 -1.39447
-0.210383 0.230596 -1.38551
-0.2158 0.22848 -1.3797
-0.212948 0.246742 -1.4143
-0.211852 0.241444 -1.40564
-0.211863 0.239133 -1.39997
-0.214344 0.253501 -1.42676
-0.211195 0.250588 -1.41832
-0.214218 0.265155 -1.44392
-0.213144 0.25957 -1.43528
-0.21496 0.27726 -1.4639
-0.21418 0.272663 -1.45563
-0.21589 0.26837 -1.4491
-0.21592 0.28282 -1.474
-0.2147 0.27808 -1.4607
-0.207115 0.316035 -1.3641
-0.20668 0.31689 -1.3588
-0.2154 0.32488 -1.4592
-0.21322 0.32092 -1.4345
-0.21182 0.31886 -1.4187
-0.210955 0.318735 -1.4085
-0.210313 0.320673 -1.40053
-0.207278 0.377313 -1.31705
-0.210725 0.38555 -1.3495
-0.209319 0.379909 -1.32591
-0.208558 0.37822 -1.31907
-0.2134 0.39632 -1.3905
-0.21387 0.39253 -1.3707
-0.201229 -0.684725 -1.19349
-0.201361 -0.684912 -1.1885
-0.201019 -0.673387 -1.21387
-0.201092 -0.675647 -1.20564
-0.201061 -0.679372 -1.19772
-0.20045 -0.681923 -1.18806
-0.20483 -0.66321 -1.2323
-0.200966 -0.665155 -1.22547
-0.201648 -0.669559 -1.21629
-0.202693 -0.67193 -1.2087
-0.200685 -0.654814 -1.24542
-0.201054 -0.659169 -1.23633
-0.201295 -0.661687 -1.23008
-0.200884 -0.644379 -1.26485
-0.20144 -0.648632 -1.25624
-0.201535 -0.650748 -1.2482
-0.20102 -0.633821 -1.28479
-0.201432 -0.638041 -1.27529
-0.201712 -0.641503 -1.2666
-0.200287 -0.623516 -1.30464
-0.20145 -0.627085 -1.29603
-0.201013 -0.63081 -1.28815
-0.199719 -0.612856 -1.32443
-0.201384 -0.616327 -1.31666
-0.201555 -0.620485 -1.30741
-0.20616 -0.62099 -1.3009
-0.20171 -0.60606 -1.3414
-0.20171 -0.605357 -1.33744
-0.201439 -0.608886 -1.32689
-0.20487 -0.609785 -1.3196
-0.201399 -0.594742 -1.35488
-0.200828 -0.599246 -1.34639
-0.20151 -0.601005 -1.3409
-0.200758 -0.583474 -1.37472
-0.201539 -0.586852 -1.36749
-0.201232 -0.590309 -1.35938
-0.200349 -0.574422 -1.39264
-0.201279 -0.577917 -1.38654
-0.201112 -0.580771 -1.37714
-0.19822 -0.56371 -1.41145
-0.201674 -0.56588 -1.40603
-0.201501 -0.570396 -1.39746
-0.19814 -0.553125 -1.4323
-0.201437 -0.556127 -1.42588
-0.201918 -0.560243 -1.41687
-0.19811 -0.56104 -1.4109
-0.201088 -0.54334 -1.45215
-0.201239 -0.545043 -1.44479
-0.200575 -0.548932 -1.43627
-0.203157 -0.55128 -1.42903
-0.20155 -0.53297 -1.4717
-0.20129 -0.534124 -1.46534
-0.20231 -0.538326 -1.45613
-0.200992 -0.54118 -1.44858
-0.200791 -0.523931 -1.48571
-0.200211 -0.527933 -1.47575
-0.202827 -0.530322 -1.46858
-0.20162 -0.513537 -1.50393
-0.20192 -0.517803 -1.49605
-0.201218 -0.521322 -1.48918
-0.20172 -0.50327 -1.5212
-0.200998 -0.506403 -1.51588
-0.20226 -0.51157 -1.50769
-0.20551 -0.49454 -1.5417
-0.201396 -0.495438 -1.53561
-0.200585 -0.499877 -1.52754
-0.20165 -0.50159 -1.5207
-0.20013 -0.482425 -1.56225
-0.201741 -0.484948 -1.55614
-0.201433 -0.488848 -1.54711
-0.201388 -0.491383 -1.53918
-0.199937 -0.473529 -1.57526
-0.200893 -0.477234 -1.5671
-0.201927 -0.480528 -1.5603
-0.201358 -0.465073 -1.59263
-0.200999 -0.467867 -1.58467
-0.203986 -0.471012 -1.57994
-0.20163 -0.45273 -1.61387
-0.201317 -0.456509 -1.60577
-0.202679 -0.460701 -1.59907
-0.20294 -0.46181 -1.5907
-0.201322 -0.443049 -1.63251
-0.201013 -0.446246 -1.62543
-0.201002 -0.449318 -1.61645
-0.201354 -0.433938 -1.64593
-0.201768 -0.438408 -1.63727
-0.200825 -0.424514 -1.66644
-0.201252 -0.428662 -1.65635
-0.202673 -0.431507 -1.6493
-0.2019 -0.413507 -1.68462
-0.201209 -0.417306 -1.67625
-0.199766 -0.421488 -1.66954
-0.201047 -0.404217 -1.70288
-0.202341 -0.407069 -1.69418
-0.200519 -0.410684 -1.68803
-0.201544 -0.395355 -1.7161
-0.201526 -0.40002 -1.70652
-0.20088 -0.40113 -1.7011
-0.20129 -0.384883 -1.73529
-0.200977 -0.389827 -1.72629
-0.200477 -0.373397 -1.75437
-0.201376 -0.37848 -1.74522
-0.202014 -0.364291 -1.7734
-0.201464 -0.367802 -1.76372
-0.201798 -0.3712 -1.75904
-0.201712 -0.353645 -1.79455
-0.200709 -0.356479 -1.78557
-0.202326 -0.360323 -1.77926
-0.20075 -0.344954 -1.80486
-0.201292 -0.350092 -1.79648
-0.201711 -0.334401 -1.82282
-0.201175 -0.339292 -1.8175
-0.20253 -0.34166 -1.81035
-0.201825 -0.322775 -1.852
-0.201514 -0.324589 -1.8442
-0.201253 -0.328924 -1.83704
-0.202057 -0.332013 -1.82897
-0.201988 -0.313863 -1.86485
-0.200408 -0.317864 -1.85468
-0.20116 -0.31912 -1.84997
-0.201594 -0.304927 -1.87709
-0.200787 -0.310006 -1.86896
-0.202997 -0.29281 -1.90283
-0.201032 -0.295912 -1.89542
-0.202504 -0.30014 -1.88574
-0.200548 -0.28407 -1.91598
-0.20138 -0.288354 -1.90646
-0.19969 -0.29022 -1.9001
-0.19742 -0.28101 -1.9168
-0.20475 -0.054029 -1.7627
-0.19978 -0.053026 -1.7299
-0.201256 -0.014319 -1.1144
-0.201502 -0.0153734 -1.10672
-0.20259 -0.015906 -1.083
-0.20062 -0.015865 -1.0802
-0.201785 -0.00940779 -1.11258
-0.201016 -0.00668357 -1.10774
-0.200523 0.00206971 -1.10515
-0.203321 0.00418927 -1.09939
-0.200417 0.0118117 -1.1023
-0.202079 0.0123945 -1.09874
-0.20139 0.0219001 -1.09492
-0.200895 0.0264966 -1.08942
-0.200763 0.0285527 -1.08887
-0.201473 0.029198 -1.07283
-0.201297 0.0319372 -1.06389
-0.201078 0.0343785 -1.05776
-0.200836 0.046245 -1.06237
-0.201603 0.0423026 -1.0565
-0.19902 0.042224 -1.0505
-0.203995 0.056541 -1.08188
-0.200867 0.0553026 -1.07589
-0.201164 0.0508419 -1.06652
-0.20071 0.0483913 -1.06047
-0.202025 0.0653731 -1.09482
-0.20064 0.0612406 -1.08667
-0.197835 0.076704 -1.1233
-0.202083 0.0750494 -1.1149
-0.200972 0.0713563 -1.10598
-0.201044 0.0692198 -1.10048
-0.201393 0.0856117 -1.13354
-0.20217 0.0811118 -1.12602
-0.198688 0.0792184 -1.11962
-0.200064 0.0967774 -1.15234
-0.201594 0.093112 -1.1452
-0.200752 0.0894631 -1.13793
-0.199973 0.106984 -1.17381
-0.203114 0.104476 -1.16686
-0.200505 0.100259 -1.15729
-0.19679 0.11739 -1.1916
-0.201224 0.115428 -1.18576
-0.201517 0.11024 -1.17671
-0.202087 0.126391 -1.2069
-0.201063 0.121317 -1.19602
-0.20272 0.118758 -1.19038
-0.203006 0.136176 -1.22314
-0.200433 0.132158 -1.21592
-0.204372 0.130488 -1.21045
-0.20192 0.147555 -1.2429
-0.201116 0.144501 -1.23579
-0.201454 0.139327 -1.22685
-0.19981 0.15696 -1.2617
-0.201362 0.155023 -1.25583
-0.201008 0.150267 -1.24735
-0.19987 0.166451 -1.275
-0.201489 0.162072 -1.26678
-0.20066 0.158635 -1.2599
-0.201619 0.176779 -1.29206
-0.202189 0.172617 -1.28598
-0.199467 0.169523 -1.2786
-0.20058 0.18652 -1.3124
-0.201659 0.183496 -1.30558
-0.201857 0.17934 -1.29653
-0.201436 0.195355 -1.32472
-0.201233 0.190136 -1.31654
-0.201175 0.205209 -1.34348
-0.201363 0.2009 -1.33572
-0.19804 0.19866 -1.3301
-0.204567 0.216817 -1.36223
-0.199581 0.214336 -1.35703
-0.202501 0.209251 -1.34858
-0.205195 0.224525 -1.37265
-0.204207 0.221615 -1.36578
-0.199733 0.222367 -1.35547
-0.1979 0.22503 -1.3503
-0.20509 0.234683 -1.3827
-0.20428 0.23034 -1.3738
-0.199708 0.230725 -1.35377
-0.198573 0.233434 -1.34827
-0.2062 0.23832 -1.3952
-0.205477 0.241635 -1.386
-0.204747 0.245033 -1.37683
-0.20372 0.24701 -1.3643
-0.200465 0.23866 -1.35285
-0.198811 0.242942 -1.34509
-0.19741 0.2455 -1.3407
-0.20492 0.24813 -1.3783
-0.203723 0.250667 -1.36363
-0.202893 0.252782 -1.35337
-0.200319 0.251703 -1.34493
-0.198609 0.254399 -1.33748
-0.20216 0.262563 -1.34283
-0.199365 0.261818 -1.33518
-0.197137 0.264543 -1.3292
-0.20247 0.270483 -1.34497
-0.200341 0.272069 -1.33343
-0.197835 0.273597 -1.32722
-0.201847 0.28325 -1.3349
-0.199087 0.282011 -1.32618
-0.196852 0.285162 -1.32052
-0.20096 0.291996 -1.3256
-0.198893 0.293999 -1.31704
-0.199529 0.302631 -1.31558
-0.19812 0.30695 -1.3104
-0.20533 0.316695 -1.343
-0.204935 0.315655 -1.33865
-0.201072 0.312102 -1.31404
-0.198815 0.313231 -1.30701
-0.20481 0.319175 -1.3363
-0.203977 0.323293 -1.32553
-0.203393 0.321287 -1.3192
-0.200402 0.322149 -1.30475
-0.198371 0.324738 -1.29975
-0.20311 0.33639 -1.312
-0.202647 0.33281 -1.30751
-0.198889 0.332942 -1.29658
-0.20232 0.341185 -1.3015
-0.19994 0.342352 -1.295
-0.197533 0.34465 -1.28902
-0.202625 0.352555 -1.30205
-0.201757 0.352019 -1.29397
-0.198592 0.353596 -1.28622
-0.202133 0.361263 -1.29382
-0.200269 0.363689 -1.28394
-0.1979 0.36502 -1.27867
-0.206227 0.376346 -1.31263
-0.205806 0.375091 -1.30807
-0.201444 0.368307 -1.28531
-0.19024 -0.68251 -1.2012
-0.191545 -0.684533 -1.19323
-0.191657 -0.684754 -1.18822
-0.18903 -0.67222 -1.222
-0.190044 -0.674256 -1.21243
-0.191565 -0.676535 -1.20604
-0.190887 -0.680214 -1.19737
-0.191531 -0.68182 -1.18844
-0.192018 -0.663093 -1.23292
-0.191283 -0.665553 -1.22571
-0.190821 -0.66978 -1.21722
-0.191251 -0.670761 -1.20903
-0.189548 -0.653506 -1.25382
-0.191168 -0.654512 -1.24477
-0.191045 -0.65919 -1.23716
-0.18903 -0.66191 -1.2276
-0.18899 -0.64335 -1.2713
-0.19078 -0.644678 -1.26498
-0.191537 -0.64881 -1.25601
-0.193054 -0.651096 -1.24756
-0.19026 -0.634856 -1.28481
-0.192052 -0.638289 -1.27643
-0.191443 -0.64088 -1.26882
-0.19185 -0.62332 -1.30529
-0.191468 -0.626603 -1.29714
-0.19142 -0.630695 -1.28902
-0.191994 -0.612952 -1.32536
-0.191274 -0.616072 -1.31606
-0.191526 -0.620845 -1.30754
-0.18903 -0.62091 -1.3007
-0.191756 -0.603677 -1.34329
-0.190081 -0.606276 -1.33564
-0.191803 -0.609014 -1.32605
-0.19571 -0.6121 -1.3193
-0.191343 -0.595188 -1.35445
-0.191781 -0.599687 -1.34651
-0.19198 -0.5834 -1.3816
-0.190218 -0.584013 -1.37566
-0.191781 -0.587942 -1.36648
-0.191829 -0.590906 -1.35783
-0.191047 -0.573705 -1.39402
-0.191471 -0.578036 -1.38776
-0.19042 -0.580607 -1.37966
-0.193505 -0.564333 -1.41302
-0.191395 -0.566197 -1.40598
-0.191505 -0.568955 -1.39876
-0.19449 -0.55322 -1.4326
-0.190777 -0.556331 -1.42607
-0.191692 -0.559994 -1.41583
-0.19571 -0.56111 -1.4111
-0.1881 -0.54252 -1.4521
-0.191479 -0.545055 -1.44603
-0.19089 -0.549118 -1.43515
-0.18812 -0.55175 -1.42875
-0.192299 -0.534264 -1.46455
-0.191648 -0.53823 -1.45591
-0.193455 -0.541147 -1.44955
-0.190194 -0.523854 -1.48506
-0.190479 -0.527394 -1.47621
-0.190095 -0.53104 -1.4687
-0.192403 -0.513386 -1.50341
-0.191511 -0.517503 -1.49639
-0.192006 -0.521456 -1.48782
-0.188996 -0.503416 -1.52246
-0.192561 -0.507027 -1.51483
-0.191018 -0.510749 -1.5075
-0.19065 -0.493635 -1.54255
-0.190998 -0.4949 -1.53558
-0.190227 -0.499362 -1.52723
-0.1938 -0.50218 -1.5179
-0.18837 -0.4825 -1.5625
-0.191613 -0.484383 -1.55489
-0.191511 -0.488852 -1.54641
-0.194057 -0.491577 -1.53897
-0.19462 -0.47287 -1.5817
-0.190816 -0.473277 -1.57486
-0.19156 -0.477761 -1.56652
-0.194075 -0.481257 -1.55985
-0.19143 -0.463697 -1.59427
-0.190803 -0.468321 -1.58454
-0.18911 -0.47182 -1.5782
-0.191751 -0.453707 -1.6132
-0.192514 -0.457373 -1.60502
-0.189283 -0.460565 -1.59962
-0.190013 -0.442787 -1.63267
-0.191473 -0.445593 -1.62597
-0.191931 -0.449971 -1.61591
-0.190884 -0.434689 -1.64611
-0.190732 -0.439606 -1.63669
-0.191665 -0.423856 -1.66409
-0.191303 -0.428267 -1.65706
-0.19178 -0.43123 -1.65047
-0.191177 -0.414076 -1.68296
-0.191468 -0.417543 -1.67584
-0.190853 -0.420758 -1.66872
-0.190931 -0.403894 -1.70207
-0.190884 -0.407077 -1.69534
-0.191465 -0.410679 -1.6879
-0.18782 -0.39317 -1.7212
-0.192302 -0.395648 -1.71625
-0.190962 -0.400149 -1.70572
-0.191072 -0.385098 -1.73544
-0.190895 -0.38974 -1.72615
-0.190753 -0.373596 -1.75577
-0.191664 -0.378163 -1.74632
-0.192868 -0.381368 -1.73768
-0.192367 -0.36393 -1.77338
-0.190981 -0.367675 -1.76568
-0.19202 -0.371033 -1.75882
-0.1907 -0.35444 -1.79298
-0.190876 -0.357195 -1.78487
-0.191917 -0.360753 -1.77643
-0.194303 -0.342933 -1.81383
-0.191634 -0.345646 -1.80582
-0.191468 -0.35034 -1.79692
-0.191006 -0.335331 -1.825
-0.191834 -0.339318 -1.81662
-0.18909 -0.34153 -1.8096
-0.190501 -0.324237 -1.8455
-0.191317 -0.327507 -1.83504
-0.191525 -0.331034 -1.829
-0.191657 -0.314117 -1.86253
-0.190621 -0.317836 -1.8552
-0.192542 -0.320357 -1.84965
-0.192593 -0.30298 -1.8819
-0.192005 -0.306264 -1.87556
-0.192236 -0.310324 -1.86586
-0.190473 -0.292713 -1.90223
-0.191253 -0.295965 -1.89373
-0.190852 -0.300639 -1.88836
-0.190992 -0.284698 -1.91341
-0.1908 -0.289799 -1.90897
-0.190357 -0.280537 -1.91695
-0.19186 -0.050524 -1.6483
-0.19427 -0.047615 -1.6051
-0.18976 -0.04257 -1.5374
-0.19067 -0.033675 -1.6298
-0.18976 -0.041029 -1.5374
-0.191971 -0.0148237 -1.11524
-0.188443 -0.0140987 -1.109
-0.190321 -0.0104722 -1.11311
-0.191329 -0.00617065 -1.10785
-0.19123 -0.000866065 -1.1115
-0.191297 0.00231649 -1.10537
-0.191003 0.00621167 -1.10043
-0.191596 0.0102436 -1.10242
-0.191319 0.0136324 -1.09657
-0.187885 0.0191365 -1.10315
-0.191365 0.0227686 -1.09505
-0.190942 0.0234048 -1.08936
-0.188597 0.0286517 -1.0926
-0.1933 0.028569 -1.0895
-0.1908 0.029202 -1.07295
-0.191411 0.0328256 -1.06422
-0.191257 0.0347826 -1.05688
-0.191301 0.0469594 -1.06451
-0.191363 0.0419273 -1.05671
-0.18781 0.03805 -1.0509
-0.190533 0.0576717 -1.08293
-0.190403 0.0537021 -1.07453
-0.193091 0.0511729 -1.0674
-0.189903 0.0483983 -1.06063
-0.191987 0.0675277 -1.10267
-0.190501 0.0650384 -1.09615
-0.192426 0.0611647 -1.08655
-0.189724 0.0587658 -1.07908
-0.189853 0.0773617 -1.12137
-0.191535 0.0759794 -1.11546
-0.190759 0.0711965 -1.10526
-0.191236 0.0856042 -1.13349
-0.191544 0.0818328 -1.12614
-0.193905 0.078699 -1.1185
-0.189988 0.0964352 -1.1529
-0.191197 0.0932284 -1.14664
-0.192332 0.0898177 -1.13892
-0.191808 0.107008 -1.17362
-0.190761 0.103881 -1.16641
-0.191678 0.0997878 -1.15658
-0.19495 0.1174 -1.1918
-0.191301 0.114923 -1.18472
-0.191274 0.110055 -1.17601
-0.19116 0.12776 -1.2112
-0.191305 0.126479 -1.20714
-0.19159 0.121923 -1.19719
-0.189037 0.118213 -1.18783
-0.192417 0.136385 -1.22467
-0.190924 0.132385 -1.21623
-0.19398 0.12896 -1.21085
-0.1921 0.14748 -1.24225
-0.191199 0.144476 -1.23599
-0.191252 0.140111 -1.22886
-0.18995 0.1577 -1.2624
-0.191758 0.154799 -1.25469
-0.190824 0.150487 -1.24781
-0.191322 0.166099 -1.27367
-0.190469 0.161459 -1.26686
-0.193697 0.158613 -1.25967
-0.190577 0.177015 -1.29257
-0.191205 0.173464 -1.28665
-0.1925 0.169473 -1.27837
-0.190933 0.187073 -1.31307
-0.192179 0.184072 -1.3057
-0.190973 0.179859 -1.29717
-0.191443 0.195163 -1.32553
-0.190765 0.190237 -1.31712
-0.190839 0.205704 -1.34553
-0.191499 0.200686 -1.33562
-0.19122 0.213869 -1.35663
-0.192277 0.208972 -1.34977
-0.191409 0.221338 -1.35369
-0.191101 0.225177 -1.34961
-0.196 0.23103 -1.3525
-0.191068 0.232882 -1.34553
-0.191819 0.241254 -1.34306
-0.190261 0.244165 -1.33947
-0.19394 0.248877 -1.34133
-0.191032 0.25276 -1.33558
-0.191462 0.261248 -1.33304
-0.191448 0.264098 -1.32922
-0.18646 0.27302 -1.3321
-0.191263 0.272671 -1.32637
-0.191459 0.280103 -1.32327
-0.191191 0.28494 -1.31818
-0.191696 0.292698 -1.314
-0.191607 0.297217 -1.3104
-0.193094 0.302668 -1.31198
-0.191207 0.303048 -1.30883
-0.191688 0.312389 -1.30447
-0.18902 0.315545 -1.2998
-0.191221 0.319615 -1.30284
-0.191093 0.323412 -1.2981
-0.191149 0.332922 -1.29468
-0.18941 0.335917 -1.2905
-0.191302 0.340743 -1.2923
-0.190906 0.343955 -1.28863
-0.191016 0.352255 -1.28396
-0.190184 0.355751 -1.28006
-0.191491 0.363332 -1.28175
-0.191081 0.36394 -1.27726
-0.189999 0.363293 -1.26718
-0.188663 0.36117 -1.2599
-0.189476 0.368164 -1.28389
-0.181409 -0.684945 -1.1934
-0.180747 -0.684793 -1.18813
-0.181412 -0.673811 -1.21248
-0.181588 -0.67716 -1.20611
-0.181244 -0.680526 -1.19672
-0.182755 -0.6818 -1.18578
-0.182705 -0.663315 -1.23135
-0.181733 -0.66548 -1.22509
-0.180731 -0.669726 -1.21623
-0.18456 -0.670707 -1.20983
-0.181427 -0.653213 -1.25253
-0.181325 -0.655059 -1.24522
-0.181319 -0.65921 -1.23582
-0.179915 -0.66141 -1.2286
-0.180934 -0.644645 -1.26597
-0.181937 -0.648826 -1.25586
-0.178605 -0.650623 -1.24992
-0.182348 -0.635332 -1.28516
-0.180926 -0.638152 -1.27573
-0.180647 -0.640529 -1.26953
-0.180716 -0.623415 -1.30347
-0.181453 -0.627204 -1.29601
-0.181539 -0.631363 -1.28724
-0.180499 -0.613893 -1.32402
-0.181589 -0.616479 -1.31583
-0.18134 -0.619926 -1.30763
-0.1764 -0.62147 -1.2986
-0.183107 -0.60244 -1.3441
-0.181777 -0.605606 -1.33681
-0.18122 -0.610187 -1.32824
-0.17843 -0.593273 -1.36203
-0.180814 -0.595698 -1.35485
-0.181762 -0.599685 -1.34679
-0.18049 -0.60193 -1.3394
-0.181143 -0.584652 -1.37555
-0.18064 -0.588129 -1.36653
-0.182624 -0.590622 -1.35887
-0.182354 -0.573664 -1.39506
-0.180979 -0.577407 -1.38648
-0.181891 -0.580529 -1.37891
-0.180274 -0.562815 -1.41485
-0.181534 -0.566261 -1.40678
-0.18192 -0.569655 -1.39862
-0.181285 -0.55565 -1.42613
-0.180796 -0.560172 -1.41802
-0.181786 -0.544892 -1.44514
-0.181166 -0.549413 -1.43591
-0.17723 -0.55217 -1.4298
-0.180907 -0.534681 -1.46461
-0.182278 -0.538969 -1.45568
-0.181318 -0.541307 -1.4489
-0.180276 -0.52365 -1.48592
-0.180599 -0.527532 -1.4771
-0.181129 -0.530937 -1.46961
-0.180744 -0.514109 -1.50432
-0.181441 -0.517177 -1.49701
-0.181562 -0.520064 -1.48918
-0.181354 -0.503054 -1.52332
-0.182158 -0.505385 -1.51535
-0.182536 -0.509829 -1.50787
-0.17714 -0.49222 -1.5444
-0.180605 -0.49559 -1.53437
-0.180478 -0.499865 -1.52791
-0.181176 -0.485191 -1.55498
-0.181271 -0.489217 -1.54617
-0.180625 -0.491585 -1.53725
-0.182954 -0.474693 -1.57332
-0.182079 -0.478154 -1.56524
-0.181411 -0.48123 -1.5577
-0.181289 -0.464074 -1.59317
-0.180628 -0.466947 -1.58543
-0.181127 -0.470514 -1.57724
-0.182262 -0.452974 -1.61352
-0.180884 -0.455943 -1.60581
-0.18072 -0.46025 -1.59753
-0.17908 -0.46194 -1.5911
-0.181496 -0.443164 -1.63228
-0.181989 -0.446277 -1.62532
-0.181674 -0.450472 -1.61829
-0.180475 -0.433345 -1.65195
-0.181835 -0.434943 -1.64608
-0.180925 -0.439287 -1.63672
-0.180273 -0.424133 -1.66373
-0.181829 -0.428037 -1.65673
-0.180263 -0.429908 -1.64873
-0.181922 -0.414577 -1.68471
-0.180364 -0.417943 -1.67605
-0.182319 -0.420617 -1.67006
-0.181256 -0.404074 -1.70152
-0.181262 -0.40597 -1.69502
-0.181625 -0.410014 -1.68745
-0.18504 -0.39343 -1.7223
-0.181215 -0.394853 -1.71672
-0.18176 -0.399279 -1.70696
-0.17975 -0.40095 -1.7003
-0.18192 -0.384246 -1.73632
-0.180541 -0.388943 -1.72622
-0.180416 -0.374446 -1.75534
-0.182363 -0.37841 -1.74575
-0.1816 -0.363563 -1.77422
-0.181229 -0.367093 -1.766
-0.180425 -0.370733 -1.75883
-0.182437 -0.354248 -1.7929
-0.181777 -0.357109 -1.78446
-0.18112 -0.360728 -1.77688
-0.181874 -0.345488 -1.80569
-0.180605 -0.350103 -1.79653
-0.181173 -0.335878 -1.82582
-0.18042 -0.339689 -1.81518
-0.183177 -0.341647 -1.81027
-0.182388 -0.324923 -1.84468
-0.180738 -0.32885 -1.83623
-0.180947 -0.331743 -1.8275
-0.182467 -0.314055 -1.86218
-0.182461 -0.318356 -1.85557
-0.180813 -0.32133 -1.84763
-0.17726 -0.30331 -1.884
-0.182224 -0.304871 -1.87682
-0.180837 -0.309838 -1.86818
-0.1842 -0.29261 -1.9016
-0.180481 -0.295307 -1.89423
-0.180858 -0.300071 -1.88714
-0.180811 -0.285682 -1.91351
-0.18202 -0.288419 -1.90876
-0.17785 -0.2922 -1.8989
-0.182537 -0.280632 -1.9176
-0.18055 -0.043571 -1.4688
-0.17762 -0.0404 -1.459
-0.17887 -0.041732 -1.4068
-0.18001 -0.039882 -1.3907
-0.181008 -0.0144196 -1.1155
-0.18219 -0.0162385 -1.1057
-0.181625 -0.016143 -1.0992
-0.180711 -0.00794263 -1.11291
-0.181005 -0.00717867 -1.10912
-0.17676 -0.0018594 -1.1118
-0.181147 0.00245675 -1.10436
-0.183148 0.00599923 -1.10068
-0.180903 0.0123108 -1.10277
-0.182516 0.0123173 -1.09985
-0.17929 0.021285 -1.1013
-0.181178 0.0228944 -1.09517
-0.181442 0.022508 -1.09073
-0.180942 0.0286664 -1.0932
-0.179872 0.029226 -1.08378
-0.18379 0.0293113 -1.077
-0.181437 0.0335366 -1.06386
-0.181833 0.034021 -1.05722
-0.182537 0.0455973 -1.0628
-0.18112 0.0423468 -1.05691
-0.18622 0.038056 -1.051
-0.18121 0.0568564 -1.08382
-0.181405 0.0536008 -1.07577
-0.181153 0.0493464 -1.06532
-0.18059 0.047966 -1.0592
-0.182291 0.0653039 -1.09546
-0.180354 0.0614233 -1.08743
-0.182553 0.058613 -1.08023
-0.181105 0.0757244 -1.11636
-0.181594 0.0714883 -1.10634
-0.180259 0.0688319 -1.09843
-0.182672 0.0854698 -1.13399
-0.179657 0.0818571 -1.12764
-0.182702 0.0795494 -1.11849
-0.184782 0.096543 -1.15324
-0.180616 0.093572 -1.14575
-0.180899 0.0888305 -1.13736
-0.182196 0.106812 -1.17309
-0.181439 0.103422 -1.16544
-0.180979 0.0998121 -1.15686
-0.17759 0.098116 -1.1502
-0.18012 0.11743 -1.192
-0.181459 0.115677 -1.1858
-0.181648 0.110624 -1.17583
-0.17839 0.10926 -1.1708
-0.181145 0.126568 -1.20654
-0.181203 0.121437 -1.1969
-0.180735 0.136341 -1.22227
-0.182012 0.132204 -1.21592
-0.180142 0.129408 -1.21036
-0.181343 0.147407 -1.24165
-0.181166 0.143997 -1.23549
-0.181173 0.139619 -1.22762
-0.181545 0.155361 -1.25645
-0.180785 0.150412 -1.24688
-0.18614 0.14855 -1.2406
-0.180553 0.166077 -1.2735
-0.181552 0.161592 -1.26678
-0.17982 0.15858 -1.25943
-0.180415 0.176872 -1.2932
-0.182262 0.173106 -1.28712
-0.180589 0.169333 -1.279
-0.183233 0.18692 -1.312
-0.180899 0.184249 -1.30632
-0.181288 0.17995 -1.29785
-0.180804 0.195111 -1.32574
-0.181805 0.189608 -1.31586
-0.180778 0.205283 -1.34543
-0.182045 0.200588 -1.3357
-0.181289 0.21334 -1.35686
-0.181006 0.220608 -1.35464
-0.181256 0.225288 -1.34886
-0.181573 0.232925 -1.34476
-0.17796 0.23701 -1.3396
-0.183848 0.242574 -1.34262
-0.180132 0.243131 -1.33903
-0.181788 0.253025 -1.33439
-0.181358 0.260883 -1.33199
-0.181664 0.264365 -1.32857
-0.181481 0.272638 -1.32462
-0.182382 0.275738 -1.31887
-0.180979 0.2801 -1.32328
-0.18158 0.284084 -1.31796
-0.181564 0.292263 -1.31405
-0.179698 0.296258 -1.30989
-0.179127 0.301093 -1.31218
-0.181162 0.303068 -1.30711
-0.181168 0.311821 -1.30371
-0.180199 0.316029 -1.29766
-0.17984 0.31109 -1.2892
-0.181076 0.321052 -1.30288
-0.181158 0.32426 -1.29743
-0.180185 0.327085 -1.29035
-0.18102 0.32857 -1.3023
-0.180554 0.331912 -1.29451
-0.181478 0.334933 -1.28977
-0.1819 0.341103 -1.29143
-0.181205 0.343137 -1.28673
-0.181148 0.351969 -1.28315
-0.183176 0.355329 -1.28006
